# .PCD v0.7 - Point Cloud Data file format
VERSION 0.7
FIELDS x y z h s v
SIZE 4 4 4 4 4 4
TYPE F F F F F F
COUNT 1 1 1 1 1 1
WIDTH 842
HEIGHT 1
VIEWPOINT 0 0 0 1 0 0 0
POINTS 842
DATA ascii
0.16015999 -0.58864003 2.184 42.352943 0.069387756 0.96078432
0.16431999 -0.58864003 2.184 42.352943 0.068000004 0.98039216
0.16848001 -0.58864003 2.184 0 0 0.98431373
0.15849048 -0.54039526 2.0050001 0 0 0.99607843
0.16133811 -0.53716099 1.9930001 0 0 0.99607843
0.1651343 -0.53716099 1.9930001 0 0 0.99607843
0.16893049 -0.53716099 1.9930001 0 0 0.99607843
0.17168668 -0.53392673 1.9810001 0 0 0.99607843
0.17546 -0.53392673 1.9810001 0 0 0.99607843
0.17923334 -0.53392673 1.9810001 0 0 0.99607843
0.18300667 -0.53392673 1.9810001 0 0 0.99607843
0.18678001 -0.53392673 1.9810001 0 0 0.84313726
0.20075239 -0.53096199 1.9700001 48 0.1923077 0.91764706
0.20450477 -0.53096199 1.9700001 41.739132 0.097457625 0.9254902
0.20582573 -0.52476287 1.9470001 41.739132 0.092369474 0.97647059
0.2095343 -0.52476287 1.9470001 48.57143 0.086065575 0.95686275
0.21576191 -0.53096199 1.9700001 48.57143 0.094594598 0.87058824
0.2332143 -0.5279972 1.9590001 44.210526 0.075697213 0.98431373
0.23694572 -0.5279972 1.9590001 44.210526 0.076305218 0.97647059
0.24067715 -0.5279972 1.9590001 57.142857 0.084677421 0.97254902
0.24440859 -0.5279972 1.9590001 57.142857 0.085020244 0.96862745
0.24814002 -0.5279972 1.9590001 49.285717 0.11290322 0.97254902
0.2503286 -0.52476287 1.9470001 49.285717 0.112 0.98039216
0.25403714 -0.52476287 1.9470001 52.799999 0.1 0.98039216
0.25774574 -0.52476287 1.9470001 57.391304 0.090196081 1
0.26145428 -0.52476287 1.9470001 60 0.0078740157 0.99607843
0.26516289 -0.52476287 1.9470001 60 0.0078740157 0.99607843
0.26887146 -0.52476287 1.9470001 0 0 0.99607843
0.27258 -0.52476287 1.9470001 0 0 0.99607843
0.2762886 -0.52476287 1.9470001 60 0.0078740157 0.99607843
0.27999714 -0.52476287 1.9470001 60 0.0078740157 0.99607843
0.2854543 -0.5279972 1.9590001 72 0.019607844 1
0.28918573 -0.5279972 1.9590001 72 0.019607844 1
0.29112288 -0.52476287 1.9470001 72 0.019607844 1
0.29483145 -0.52476287 1.9470001 72 0.019607844 1
0.30038002 -0.5279972 1.9590001 60 0.0078740157 0.99607843
0.30411145 -0.5279972 1.9590001 60 0.0078740157 0.99607843
0.30595717 -0.52476287 1.9470001 0 0 0.99607843
0.30966574 -0.52476287 1.9470001 0 0 0.99607843
0.31337431 -0.52476287 1.9470001 0 0 0.99607843
0.31708285 -0.52476287 1.9470001 0 0 0.99607843
0.32079145 -0.52476287 1.9470001 0 0 0.99607843
0.32450002 -0.52476287 1.9470001 0 0 0.99607843
0.3282086 -0.52476287 1.9470001 60 0.0078740157 0.99607843
0.33191717 -0.52476287 1.9470001 60 0.0078740157 0.99607843
0.33562574 -0.52476287 1.9470001 60 0.0078740157 0.99607843
0.33933431 -0.52476287 1.9470001 60 0.0078740157 0.99607843
0.34304288 -0.52476287 1.9470001 68.571426 0.027450981 1
0.34675145 -0.52476287 1.9470001 68.571426 0.028225806 0.97254902
0.35046002 -0.52476287 1.9470001 39.23077 0.10358566 0.98431373
0.35635144 -0.5279972 1.9590001 40.799999 0.098039217 1
0.36008289 -0.5279972 1.9590001 46.153847 0.051383398 0.99215686
0.36585715 -0.53096199 1.9700001 46.153847 0.05179283 0.98431373
0.36960953 -0.53096199 1.9700001 55 0.047430828 0.99215686
0.37544668 -0.53392673 1.9810001 55 0.047619049 0.98823529
0.37922001 -0.53392673 1.9810001 15 0.015748031 0.99607843
0.38299334 -0.53392673 1.9810001 15 0.017316017 0.90588236
-0.76752001 -0.58447999 2.184 340 0.043902438 0.80392158
-0.75088 -0.58447999 2.184 350.76923 0.060747664 0.8392157
-0.74672002 -0.58447999 2.184 316.36365 0.053921569 0.80000001
-0.73424 -0.58447999 2.184 12 0.070754714 0.83137256
-0.73007995 -0.58447999 2.184 353.33334 0.042857144 0.82352942
-0.72592002 -0.58447999 2.184 353.33334 0.039647575 0.89019608
-0.72176003 -0.58447999 2.184 33.333336 0.039823011 0.88627452
-0.71759999 -0.58447999 2.184 33.333336 0.039999999 0.88235295
-0.71344 -0.58447999 2.184 27.272728 0.048672568 0.88627452
-0.70928001 -0.58447999 2.184 27.272728 0.047826085 0.90196079
-0.70511997 -0.58447999 2.184 40 0.065502182 0.89803922
-0.70095998 -0.58447999 2.184 40 0.064102568 0.91764706
-0.69679999 -0.58447999 2.184 34.736843 0.082608692 0.90196079
-0.69264001 -0.58447999 2.184 34.736843 0.081545062 0.9137255
-0.68847996 -0.58447999 2.184 18.461538 0.05652174 0.90196079
-0.68432003 -0.58447999 2.184 18.461538 0.056768559 0.89803922
-0.68016005 -0.58447999 2.184 24 0.065789476 0.89411765
-0.676 -0.58447999 2.184 24 0.065789476 0.89411765
-0.67184001 -0.58447999 2.184 30 0.061403509 0.89411765
-0.66768003 -0.58447999 2.184 30 0.060344826 0.90980393
-0.66351998 -0.58447999 2.184 34.736843 0.082251079 0.90588236
-0.65935999 -0.58447999 2.184 34.736843 0.081196584 0.91764706
-0.6552 -0.58447999 2.184 36.666668 0.079646021 0.88627452
-0.64686668 -0.58073336 2.1700001 36.666668 0.080357142 0.87843138
-0.63473618 -0.57350767 2.1430001 30 0.090909094 0.86274511
-0.62653434 -0.56976098 2.1290002 30 0.09049774 0.86666667
-0.35984001 -0.58447999 2.184 26.666666 0.17475729 0.80784315
-0.34735999 -0.58447999 2.184 35.675674 0.1745283 0.83137256
-0.3432 -0.58447999 2.184 35.675674 0.18048781 0.80392158
-0.33904001 -0.58447999 2.184 30 0.16504854 0.80784315
-0.33487999 -0.58447999 2.184 30 0.16425121 0.81176472
-0.33072001 -0.58447999 2.184 28.125 0.15609756 0.80392158
-0.32655999 -0.58447999 2.184 28.125 0.15458937 0.81176472
-0.32239997 -0.58447999 2.184 22.941177 0.16346154 0.81568629
-0.32028005 -0.58822674 2.1980002 22.941177 0.16190477 0.82352942
-0.29744002 -0.58447999 2.184 30 0.15525115 0.85882354
-0.29328001 -0.58447999 2.184 30 0.15384616 0.86666667
-0.28911999 -0.58447999 2.184 29.032257 0.14622642 0.83137256
-0.28496 -0.58447999 2.184 29.032257 0.14485981 0.8392157
-0.28079998 -0.58447999 2.184 32.727272 0.15348837 0.84313726
-0.27664 -0.58447999 2.184 32.727272 0.15714286 0.82352942
-0.27248001 -0.58447999 2.184 16.153847 0.12264151 0.83137256
-0.26831999 -0.58447999 2.184 16.153847 0.11981567 0.8509804
-0.26416001 -0.58447999 2.184 27.428572 0.16203703 0.84705883
-0.25999999 -0.58447999 2.184 27.428572 0.16203703 0.84705883
-0.25583997 -0.58447999 2.184 27.428572 0.16355141 0.8392157
-0.25168002 -0.58447999 2.184 27.428572 0.15837105 0.86666667
-0.24752 -0.58447999 2.184 12.631579 0.087557606 0.8509804
-0.24336 -0.58447999 2.184 12.631579 0.086363636 0.86274511
-0.2392 -0.58447999 2.184 29.032257 0.13963965 0.87058824
-0.23504001 -0.58447999 2.184 29.032257 0.13419913 0.90588236
-0.23236002 -0.58822674 2.1980002 36 0.17316018 0.90588236
-0.22817335 -0.58822674 2.1980002 36 0.16949153 0.9254902
-0.22398669 -0.58822674 2.1980002 33.103447 0.12554112 0.90588236
-0.21980003 -0.58822674 2.1980002 33.103447 0.12393162 0.91764706
-0.21561335 -0.58822674 2.1980002 31.666668 0.15189873 0.92941177
-0.21142668 -0.58822674 2.1980002 31.666668 0.14693877 0.96078432
-0.20724002 -0.58822674 2.1980002 28.888889 0.11157025 0.94901961
-0.20305336 -0.58822674 2.1980002 28.888889 0.11111111 0.95294118
-0.20013334 -0.59197336 2.2120001 28.571428 0.08677686 0.94901961
-0.19468002 -0.58822674 2.1980002 28.571428 0.083333336 0.98823529
-0.19049335 -0.58822674 2.1980002 48.57143 0.084677421 0.97254902
-0.18630669 -0.58822674 2.1980002 48.57143 0.082677163 0.99607843
-0.18096 -0.58447999 2.184 60 0.035999998 0.98039216
-0.1768 -0.58447999 2.184 60 0.035856575 0.98431373
-0.17264 -0.58447999 2.184 60 0.035999998 0.98039216
-0.16848001 -0.58447999 2.184 60 0.035294119 1
-0.16431999 -0.58447999 2.184 0 0 0.99607843
-0.15913334 -0.58073336 2.1700001 0 0 0.99607843
-0.155 -0.58073336 2.1700001 0 0 0.99607843
-0.15184 -0.58447999 2.184 0 0 0.99607843
-0.14768 -0.58447999 2.184 0 0 0.99607843
-0.14352 -0.58447999 2.184 0 0 0.99607843
-0.13936 -0.58447999 2.184 0 0 0.99607843
-0.13520001 -0.58447999 2.184 0 0 0.99607843
-0.13103999 -0.58447999 2.184 0 0 0.99607843
-0.12688001 -0.58447999 2.184 0 0 0.99607843
-0.12272 -0.58447999 2.184 0 0 0.99607843
-0.11856 -0.58447999 2.184 0 0 0.99607843
-0.1144 -0.58447999 2.184 0 0 0.99607843
-0.11024 -0.58447999 2.184 0 0 0.99607843
-0.10608 -0.58447999 2.184 0 0 0.99607843
-0.10192 -0.58447999 2.184 0 0 0.99607843
-0.098386675 -0.58822674 2.1980002 33.333336 0.037037037 0.95294118
-0.093599997 -0.58447999 2.184 33.333336 0.038297873 0.92156863
-0.089440003 -0.58447999 2.184 43.636364 0.045081966 0.95686275
-0.085280001 -0.58447999 2.184 53.333332 0.035294119 1
-0.081119999 -0.58447999 2.184 0 0 0.99607843
-0.076959997 -0.58447999 2.184 0 0 0.99607843
-0.072800003 -0.58447999 2.184 0 0 0.99607843
-0.069080003 -0.58822674 2.1980002 0 0 0.99215686
-0.064893343 -0.58822674 2.1980002 70.000008 0.047430828 0.99215686
-0.060706671 -0.58822674 2.1980002 70.000008 0.047619049 0.98823529
-0.056520004 -0.58822674 2.1980002 48 0.020325202 0.96470588
-0.052333336 -0.58822674 2.1980002 48 0.019685039 0.99607843
-0.048146669 -0.58822674 2.1980002 72 0.039215688 1
-0.043960005 -0.58822674 2.1980002 72 0.039215688 1
-0.039773338 -0.58822674 2.1980002 72 0.019841271 0.98823529
-0.03558667 -0.58822674 2.1980002 72 0.019685039 0.99607843
-0.031400003 -0.58822674 2.1980002 72 0.019685039 0.99607843
-0.027213337 -0.58822674 2.1980002 72 0.019685039 0.99607843
-0.023026668 -0.58822674 2.1980002 68.571426 0.027667984 0.99215686
-0.018840002 -0.58822674 2.1980002 68.571426 0.027559055 0.99607843
-0.014653334 -0.58822674 2.1980002 72 0.019685039 0.99607843
-0.010466667 -0.58822674 2.1980002 72 0.019685039 0.99607843
-0.0062800008 -0.58822674 2.1980002 72 0.039370079 0.99607843
-0.0020933335 -0.58822674 2.1980002 72 0.039370079 0.99607843
0.0021066668 -0.59197336 2.2120001 68.571426 0.027667984 0.99215686
0.0063200006 -0.59197336 2.2120001 68.571426 0.027559055 0.99607843
0.010533334 -0.59197336 2.2120001 72 0.019685039 0.99607843
0.014746668 -0.59197336 2.2120001 72 0.019607844 1
0.018960001 -0.59197336 2.2120001 60 0.0078740157 0.99607843
0.023173334 -0.59197336 2.2120001 60 0.0078740157 0.99607843
0.027386669 -0.59197336 2.2120001 0 0 0.99607843
0.031599998 -0.59197336 2.2120001 0 0 0.99607843
0.035813335 -0.59197336 2.2120001 60 0.0078740157 0.99607843
0.039773338 -0.58822674 2.1980002 60 0.0078740157 0.99607843
0.043960005 -0.58822674 2.1980002 60 0.0078740157 0.99607843
0.048146669 -0.58822674 2.1980002 60 0.0078740157 0.99607843
0.052333336 -0.58822674 2.1980002 0 0 0.99607843
0.056520004 -0.58822674 2.1980002 0 0 0.99607843
0.060706671 -0.58822674 2.1980002 60 0.0078740157 0.99607843
0.064893343 -0.58822674 2.1980002 60 0.0078740157 0.99607843
0.069520004 -0.59197336 2.2120001 0 0 0.99607843
0.073733337 -0.59197336 2.2120001 0 0 0.99607843
0.07794667 -0.59197336 2.2120001 0 0 0.99607843
0.082160003 -0.59197336 2.2120001 0 0 0.99607843
0.086373344 -0.59197336 2.2120001 0 0 0.99607843
0.09058667 -0.59197336 2.2120001 0 0 0.99607843
0.09480001 -0.59197336 2.2120001 0 0 0.99607843
0.099013336 -0.59197336 2.2120001 0 0 0.99607843
0.10257334 -0.58822674 2.1980002 0 0 0.99607843
0.10676 -0.58822674 2.1980002 0 0 0.99607843
0.11094668 -0.58822674 2.1980002 66.428574 0.10980392 1
0.11513334 -0.58822674 2.1980002 66.428574 0.11864407 0.9254902
0.11932001 -0.58822674 2.1980002 40 0.063559324 0.9254902
0.12350667 -0.58822674 2.1980002 54.545456 0.043137256 1
0.12850668 -0.59197336 2.2120001 0 0 0.99607843
0.13272001 -0.59197336 2.2120001 0 0 0.99607843
0.13693334 -0.59197336 2.2120001 60 0.0079051387 0.99215686
0.14114667 -0.59197336 2.2120001 60 0.0079365084 0.98823529
0.14536001 -0.59197336 2.2120001 60 0.036144577 0.97647059
0.14862669 -0.58822674 2.1980002 60 0.036144577 0.97647059
0.15281335 -0.58822674 2.1980002 60 0.0078740157 0.99607843
0.15700002 -0.58822674 2.1980002 60 0.0078740157 0.99607843
0.14446668 -0.52720958 1.9700001 60 0.0078740157 0.99607843
0.14821905 -0.52720958 1.9700001 60 0.0078740157 0.99607843
0.15197143 -0.52720958 1.9700001 0 0 0.99607843
0.15572381 -0.52720958 1.9700001 0 0 0.99607843
0.16133811 -0.53336477 1.9930001 0 0 0.99607843
0.1651343 -0.53336477 1.9930001 0 0 0.99607843
0.16791333 -0.53015333 1.9810001 0 0 0.99607843
0.17168668 -0.53015333 1.9810001 0 0 0.99607843
0.17546 -0.53015333 1.9810001 0 0 0.99607843
0.17923334 -0.53015333 1.9810001 0 0 0.99607843
0.18300667 -0.53015333 1.9810001 72 0.02 0.98039216
0.19324763 -0.52720958 1.9700001 21 0.084745765 0.9254902
0.19590001 -0.52426571 1.9590001 43.636364 0.13469388 0.96078432
0.19840857 -0.52105433 1.9470001 43.636364 0.13580246 0.95294118
0.20211716 -0.52105433 1.9470001 39.23077 0.10655738 0.95686275
0.20582573 -0.52105433 1.9470001 39.23077 0.10526316 0.96862745
0.2095343 -0.52105433 1.9470001 43.200001 0.10245901 0.95686275
0.21576191 -0.52720958 1.9700001 43.200001 0.10729614 0.9137255
0.21951431 -0.52720958 1.9700001 28.235294 0.071729958 0.92941177
0.22326669 -0.52720958 1.9700001 28.235294 0.06827309 0.97647059
0.22575144 -0.52426571 1.9590001 22.105263 0.080168776 0.92941177
0.22948287 -0.52426571 1.9590001 22.105263 0.093137257 0.80000001
0.24662001 -0.52105433 1.9470001 43.04348 0.18775511 0.96078432
0.2489143 -0.51811051 1.9360001 43.04348 0.18699187 0.96470588
0.25260192 -0.51811051 1.9360001 70.000008 0.047058824 1
0.25628951 -0.51811051 1.9360001 65.454544 0.043137256 1
0.25997716 -0.51811051 1.9360001 0 0 0.99607843
0.26366478 -0.51811051 1.9360001 0 0 0.99607843
0.26735237 -0.51811051 1.9360001 0 0 0.99607843
0.27103999 -0.51811051 1.9360001 0 0 0.99607843
0.27472764 -0.51811051 1.9360001 0 0 0.99607843
0.27841526 -0.51811051 1.9360001 0 0 0.99607843
0.28370574 -0.52105433 1.9470001 0 0 0.99607843
0.28741431 -0.52105433 1.9470001 0 0 0.99607843
0.29112288 -0.52105433 1.9470001 0 0 0.99607843
0.29483145 -0.52105433 1.9470001 0 0 0.99607843
0.29854 -0.52105433 1.9470001 0 0 0.99607843
0.3022486 -0.52105433 1.9470001 0 0 0.99607843
0.3042286 -0.51811051 1.9360001 0 0 0.99607843
0.30791619 -0.51811051 1.9360001 0 0 0.99607843
0.31160381 -0.51811051 1.9360001 0 0 0.99607843
0.31708285 -0.52105433 1.9470001 0 0 0.99607843
0.32079145 -0.52105433 1.9470001 0 0 0.99607843
0.32266667 -0.51811051 1.9360001 0 0 0.99607843
0.3263543 -0.51811051 1.9360001 0 0 0.99607843
0.33004192 -0.51811051 1.9360001 0 0 0.99607843
0.33372954 -0.51811051 1.9360001 0 0 0.99607843
0.33933431 -0.52105433 1.9470001 0 0 0.99607843
0.34304288 -0.52105433 1.9470001 72 0.039682541 0.98823529
0.47100005 -0.58822674 2.1980002 347.36841 0.092682928 0.80392158
-0.76752001 -0.58032 2.184 5.4545455 0.053921569 0.80000001
-0.75503999 -0.58032 2.184 7.5 0.077669904 0.80784315
-0.75088 -0.58032 2.184 7.5 0.07692308 0.81568629
-0.74672002 -0.58032 2.184 350 0.058536585 0.80392158
-0.73424 -0.58032 2.184 32.307693 0.12380952 0.82352942
-0.73007995 -0.58032 2.184 20 0.057416268 0.81960785
-0.72592002 -0.58032 2.184 20 0.052631579 0.89411765
-0.72176003 -0.58032 2.184 27.272728 0.048245613 0.89411765
-0.71759999 -0.58032 2.184 27.272728 0.048458152 0.89019608
-0.71344 -0.58032 2.184 32.307693 0.057777777 0.88235295
-0.70928001 -0.58032 2.184 32.307693 0.056768559 0.89803922
-0.70511997 -0.58032 2.184 33.75 0.069565214 0.90196079
-0.70095998 -0.58032 2.184 33.75 0.069565214 0.90196079
-0.69679999 -0.58032 2.184 34.736843 0.083700441 0.89019608
-0.69264001 -0.58032 2.184 34.736843 0.082608692 0.90196079
-0.69289339 -0.58404005 2.1980002 353.33334 0.039473683 0.89411765
-0.68870676 -0.58404005 2.1980002 353.33334 0.039473683 0.89411765
-0.68452001 -0.58404005 2.1980002 26.666666 0.078602619 0.89803922
-0.68033338 -0.58404005 2.1980002 26.666666 0.078260869 0.90196079
-0.67614669 -0.58404005 2.1980002 28.235294 0.074235804 0.89803922
-0.67196006 -0.58404005 2.1980002 28.235294 0.072961375 0.9137255
-0.66351998 -0.58032 2.184 33.75 0.069868997 0.89803922
-0.65935999 -0.58032 2.184 33.75 0.069565214 0.90196079
-0.6552 -0.58032 2.184 40 0.066964284 0.87843138
-0.64686668 -0.57660002 2.1700001 40 0.067567565 0.87058824
-0.63473618 -0.56942576 2.1430001 34.736843 0.087557606 0.8509804
-0.61505717 -0.55534291 2.0900002 34.736843 0.082969435 0.89803922
-0.35152 -0.58032 2.184 35.675674 0.18048781 0.80392158
-0.32655999 -0.58032 2.184 30.81081 0.17874396 0.81176472
-0.32239997 -0.58032 2.184 28.421053 0.18181819 0.81960785
-0.31824002 -0.58032 2.184 28.421053 0.18009479 0.82745099
-0.31609336 -0.58404005 2.1980002 28.125 0.15609756 0.80392158
-0.29744002 -0.58032 2.184 29.032257 0.14220184 0.85490197
-0.29328001 -0.58032 2.184 29.032257 0.14155251 0.85882354
-0.28911999 -0.58032 2.184 36 0.12195122 0.80392158
-0.28496 -0.58032 2.184 36 0.1201923 0.81568629
-0.28079998 -0.58032 2.184 31.304348 0.10849056 0.83137256
-0.27664 -0.58032 2.184 31.304348 0.11165048 0.80784315
-0.27248001 -0.58032 2.184 18.620689 0.13679245 0.83137256
-0.26831999 -0.58032 2.184 18.620689 0.13364056 0.8509804
-0.26416001 -0.58032 2.184 26.666666 0.16901408 0.83529413
-0.25999999 -0.58032 2.184 26.666666 0.16744186 0.84313726
-0.25583997 -0.58032 2.184 27.428572 0.16355141 0.8392157
-0.25168002 -0.58032 2.184 27.428572 0.16055046 0.85490197
-0.24752 -0.58032 2.184 22.222221 0.12676056 0.83529413
-0.24336 -0.58032 2.184 22.222221 0.12217195 0.86666667
-0.2392 -0.58032 2.184 29.032257 0.13963965 0.87058824
-0.23654668 -0.58404005 2.1980002 29.032257 0.13419913 0.90588236
-0.23236002 -0.58404005 2.1980002 32.307693 0.16883117 0.90588236
-0.22817335 -0.58404005 2.1980002 32.307693 0.16666667 0.91764706
-0.22398669 -0.58404005 2.1980002 32.727272 0.14347826 0.90196079
-0.21980003 -0.58404005 2.1980002 32.727272 0.13983051 0.9254902
-0.21561335 -0.58404005 2.1980002 32.727272 0.13983051 0.9254902
-0.21142668 -0.58404005 2.1980002 32.727272 0.1352459 0.95686275
-0.20724002 -0.58404005 2.1980002 26.4 0.10330579 0.94901961
-0.20305336 -0.58404005 2.1980002 26.4 0.10162602 0.96470588
-0.20013334 -0.58776003 2.2120001 37.5 0.098360658 0.95686275
-0.19468002 -0.58404005 2.1980002 37.5 0.096000001 0.98039216
-0.19049335 -0.58404005 2.1980002 44.210526 0.076612905 0.97254902
-0.18630669 -0.58404005 2.1980002 44.210526 0.075098813 0.99215686
-0.18096 -0.58032 2.184 55 0.047808766 0.98431373
-0.1768 -0.58032 2.184 55 0.047619049 0.98823529
-0.17264 -0.58032 2.184 60 0.035999998 0.98039216
-0.16848001 -0.58032 2.184 60 0.035294119 1
-0.16431999 -0.58032 2.184 0 0 0.99607843
-0.16015999 -0.58032 2.184 0 0 0.99607843
-0.156 -0.58032 2.184 0 0 0.99607843
-0.15184 -0.58032 2.184 0 0 0.99607843
-0.14768 -0.58032 2.184 0 0 0.99607843
-0.14352 -0.58032 2.184 0 0 0.99607843
-0.14025334 -0.58404005 2.1980002 0 0 0.99607843
-0.13520001 -0.58032 2.184 0 0 0.99607843
-0.13103999 -0.58032 2.184 0 0 0.99607843
-0.12769336 -0.58404005 2.1980002 0 0 0.99607843
-0.12350667 -0.58404005 2.1980002 0 0 0.99607843
-0.11932001 -0.58404005 2.1980002 0 0 0.99607843
-0.11513334 -0.58404005 2.1980002 0 0 0.99607843
-0.11024 -0.58032 2.184 0 0 0.99607843
-0.10608 -0.58032 2.184 0 0 0.99607843
-0.10257334 -0.58404005 2.1980002 0 0 0.99607843
-0.098386675 -0.58404005 2.1980002 43.636364 0.045454547 0.94901961
-0.094200008 -0.58404005 2.1980002 43.636364 0.046610169 0.9254902
-0.09001334 -0.58404005 2.1980002 43.636364 0.044715445 0.96470588
-0.08582668 -0.58404005 2.1980002 53.333332 0.035294119 1
-0.081640005 -0.58404005 2.1980002 0 0 0.99607843
-0.077453338 -0.58404005 2.1980002 0 0 0.99607843
-0.07326667 -0.58404005 2.1980002 60 0.0078740157 0.99607843
-0.069080003 -0.58404005 2.1980002 60 0.0080000004 0.98039216
-0.064893343 -0.58404005 2.1980002 55 0.048192769 0.97647059
-0.060706671 -0.58404005 2.1980002 55 0.048192769 0.97647059
-0.056520004 -0.58404005 2.1980002 48 0.040816326 0.96078432
-0.052333336 -0.58404005 2.1980002 48 0.039370079 0.99607843
-0.048453335 -0.58776003 2.2120001 72 0.039525691 0.99215686
-0.043960005 -0.58404005 2.1980002 72 0.039525691 0.99215686
-0.039773338 -0.58404005 2.1980002 68.571426 0.027777778 0.98823529
-0.03558667 -0.58404005 2.1980002 68.571426 0.027559055 0.99607843
-0.031400003 -0.58404005 2.1980002 72 0.019607844 1
-0.027213337 -0.58404005 2.1980002 72 0.019685039 0.99607843
-0.023026668 -0.58404005 2.1980002 72 0.019841271 0.98823529
-0.018840002 -0.58404005 2.1980002 72 0.019685039 0.99607843
-0.014653334 -0.58404005 2.1980002 72 0.019685039 0.99607843
-0.010466667 -0.58404005 2.1980002 72 0.019685039 0.99607843
-0.0062800008 -0.58404005 2.1980002 72 0.039370079 0.99607843
-0.0020933335 -0.58404005 2.1980002 72 0.039215688 1
0.0021066668 -0.58776003 2.2120001 60 0.035856575 0.98431373
0.0063200006 -0.58776003 2.2120001 60 0.035433073 0.99607843
0.0106 -0.59148002 2.2260001 72 0.019607844 1
0.01484 -0.59148002 2.2260001 72 0.019685039 0.99607843
0.01908 -0.59148002 2.2260001 72 0.019607844 1
0.023173334 -0.58776003 2.2120001 72 0.019607844 1
0.027386669 -0.58776003 2.2120001 60 0.0078740157 0.99607843
0.031599998 -0.58776003 2.2120001 60 0.0078740157 0.99607843
0.035813335 -0.58776003 2.2120001 72 0.019841271 0.98823529
0.040026668 -0.58776003 2.2120001 72 0.019762846 0.99215686
0.044240002 -0.58776003 2.2120001 72 0.019607844 1
0.048146669 -0.58404005 2.1980002 72 0.019607844 1
0.052333336 -0.58404005 2.1980002 60 0.0078740157 0.99607843
0.056520004 -0.58404005 2.1980002 60 0.0078740157 0.99607843
0.060706671 -0.58404005 2.1980002 72 0.019685039 0.99607843
0.065306671 -0.58776003 2.2120001 72 0.019607844 1
0.069520004 -0.58776003 2.2120001 60 0.0078740157 0.99607843
0.073733337 -0.58776003 2.2120001 60 0.0078740157 0.99607843
0.07794667 -0.58776003 2.2120001 60 0.0078740157 0.99607843
0.082160003 -0.58776003 2.2120001 60 0.0078740157 0.99607843
0.086373344 -0.58776003 2.2120001 0 0 0.99607843
0.09058667 -0.58776003 2.2120001 0 0 0.99607843
0.09480001 -0.58776003 2.2120001 0 0 0.99607843
0.099013336 -0.58776003 2.2120001 0 0 0.99607843
0.10257334 -0.58404005 2.1980002 0 0 0.99607843
0.10676 -0.58404005 2.1980002 0 0 0.99607843
0.11094668 -0.58404005 2.1980002 44.210526 0.077868849 0.95686275
0.11513334 -0.58404005 2.1980002 44.210526 0.081196584 0.91764706
0.11932001 -0.58404005 2.1980002 42.857143 0.12121212 0.90588236
0.12429334 -0.58776003 2.2120001 57.142857 0.082352944 1
0.12850668 -0.58776003 2.2120001 60 0.0078740157 0.99607843
0.13272001 -0.58776003 2.2120001 60 0.0078740157 0.99607843
0.13693334 -0.58776003 2.2120001 72 0.02 0.98039216
0.14114667 -0.58776003 2.2120001 72 0.02 0.98039216
0.14536001 -0.58776003 2.2120001 60 0.0080645159 0.97254902
0.14862669 -0.58404005 2.1980002 60 0.0080000004 0.98039216
0.15281335 -0.58404005 2.1980002 0 0 0.99607843
0.14150001 -0.52638 1.9810001 0 0 0.99607843
0.14446668 -0.52345723 1.9700001 0 0 0.99607843
0.14821905 -0.52345723 1.9700001 0 0 0.99607843
0.15197143 -0.52345723 1.9700001 0 0 0.99607843
0.15572381 -0.52345723 1.9700001 0 0 0.99607843
0.16036667 -0.52638 1.9810001 0 0 0.99607843
0.16414 -0.52638 1.9810001 0 0 0.99607843
0.16791333 -0.52638 1.9810001 0 0 0.99607843
0.17168668 -0.52638 1.9810001 0 0 0.99607843
0.17546 -0.52638 1.9810001 0 0 0.99607843
0.17923334 -0.52638 1.9810001 0 0 0.99607843
0.18300667 -0.52638 1.9810001 60 0.028688524 0.95686275
0.19590001 -0.52053434 1.9590001 46.153847 0.05179283 0.98431373
0.19840857 -0.51734573 1.9470001 46.153847 0.052419353 0.97254902
0.20211716 -0.51734573 1.9470001 42.352943 0.069387756 0.96078432
0.20582573 -0.51734573 1.9470001 42.352943 0.069387756 0.96078432
0.2095343 -0.51734573 1.9470001 20 0.049180329 0.95686275
0.21324287 -0.51734573 1.9470001 20 0.049382716 0.95294118
0.21572572 -0.51442289 1.9360001 28.235294 0.069958851 0.95294118
0.21941335 -0.51442289 1.9360001 34.285717 0.054901961 1
0.22436859 -0.51734573 1.9470001 0 0 0.98823529
0.22807716 -0.51734573 1.9470001 0 0 0.89019608
0.24522667 -0.51442289 1.9360001 39.23077 0.10569106 0.96470588
0.2489143 -0.51442289 1.9360001 39.23077 0.104 0.98039216
0.25260192 -0.51442289 1.9360001 68.571426 0.027450981 1
0.25628951 -0.51442289 1.9360001 68.571426 0.027450981 1
0.25997716 -0.51442289 1.9360001 0 0 0.99607843
0.26230288 -0.51176572 1.9260001 0 0 0.99607843
0.26597145 -0.51176572 1.9260001 0 0 0.99607843
0.26964 -0.51176572 1.9260001 0 0 0.99607843
0.2733086 -0.51176572 1.9260001 0 0 0.99607843
0.27697715 -0.51176572 1.9260001 0 0 0.99607843
0.28210285 -0.51442289 1.9360001 0 0 0.99607843
0.28741431 -0.51734573 1.9470001 0 0 0.99607843
0.28947812 -0.51442289 1.9360001 0 0 0.99607843
0.29316571 -0.51442289 1.9360001 0 0 0.99607843
0.29854 -0.51734573 1.9470001 0 0 0.99607843
0.3022486 -0.51734573 1.9470001 0 0 0.99607843
0.3042286 -0.51442289 1.9360001 0 0 0.99607843
0.30791619 -0.51442289 1.9360001 0 0 0.99607843
0.31160381 -0.51442289 1.9360001 0 0 0.99607843
0.31529146 -0.51442289 1.9360001 0 0 0.99607843
0.31897905 -0.51442289 1.9360001 0 0 0.99607843
0.32266667 -0.51442289 1.9360001 0 0 0.99607843
0.3263543 -0.51442289 1.9360001 0 0 0.99607843
0.33004192 -0.51442289 1.9360001 0 0 0.99607843
0.33372954 -0.51442289 1.9360001 0 0 0.99607843
0.33741716 -0.51442289 1.9360001 0 0 0.99607843
0.34110481 -0.51442289 1.9360001 82.5 0.065573767 0.95686275
0.40713334 -0.52345723 1.9700001 10 0.13043478 0.90196079
0.41088572 -0.52345723 1.9700001 10 0.12765957 0.92156863
0.4146381 -0.52345723 1.9700001 20.625 0.13445379 0.93333334
0.47275999 -0.59148002 2.2260001 20.625 0.13168724 0.95294118
0.47100005 -0.58404005 2.1980002 17.64706 0.071428575 0.93333334
0.47518671 -0.58404005 2.1980002 17.64706 0.075221241 0.88627452
-0.75988007 -0.57985342 2.1980002 21 0.098039217 0.80000001
-0.75569344 -0.57985342 2.1980002 21 0.097087376 0.80784315
-0.75150675 -0.57985342 2.1980002 12.857143 0.068627454 0.80000001
-0.73424 -0.57616001 2.184 35.454544 0.10731708 0.80392158
-0.73007995 -0.57616001 2.184 12 0.047846891 0.81960785
-0.72592002 -0.57616001 2.184 12 0.043478262 0.90196079
-0.72176003 -0.57616001 2.184 33.75 0.069868997 0.89803922
-0.71759999 -0.57616001 2.184 33.75 0.069868997 0.89803922
-0.71344 -0.57616001 2.184 30 0.06167401 0.89019608
-0.70928001 -0.57616001 2.184 30 0.060869563 0.90196079
-0.70511997 -0.57616001 2.184 40 0.065789476 0.89411765
-0.70095998 -0.57616001 2.184 40 0.065789476 0.89411765
-0.69679999 -0.57616001 2.184 36.666668 0.079999998 0.88235295
-0.69264001 -0.57616001 2.184 36.666668 0.078260869 0.90196079
-0.69289339 -0.57985342 2.1980002 340 0.039473683 0.89411765
-0.68870676 -0.57985342 2.1980002 340 0.039999999 0.88235295
-0.68452001 -0.57985342 2.1980002 30 0.088495575 0.88627452
-0.68033338 -0.57985342 2.1980002 30 0.086206898 0.90980393
-0.67614669 -0.57985342 2.1980002 34.736843 0.082969435 0.89803922
-0.67196006 -0.57985342 2.1980002 34.736843 0.081196584 0.91764706
-0.66777337 -0.57985342 2.1980002 28.235294 0.073593073 0.90588236
-0.65935999 -0.57616001 2.184 28.235294 0.073913045 0.90196079
-0.6552 -0.57616001 2.184 33.75 0.069868997 0.89803922
-0.64686668 -0.57246667 2.1700001 33.75 0.069565214 0.90196079
-0.63473618 -0.5653438 2.1430001 34.736843 0.082251079 0.90588236
-0.61505717 -0.55136198 2.0900002 34.736843 0.079497911 0.93725491
-0.42283332 -0.54476666 2.0650001 0 0.095693782 0.81960785
-0.41889998 -0.54476666 2.0650001 0 0.091743119 0.85490197
-0.4149667 -0.54476666 2.0650001 31.666668 0.16 0.88235295
-0.41103336 -0.54476666 2.0650001 31.666668 0.16071428 0.87843138
-0.35152 -0.57616001 2.184 32.857143 0.1981132 0.83137256
-0.34735999 -0.57616001 2.184 31.499998 0.19323671 0.81176472
-0.3432 -0.57616001 2.184 31.499998 0.19417475 0.80784315
-0.33487999 -0.57616001 2.184 25.454546 0.15865384 0.81568629
-0.33072001 -0.57616001 2.184 28.421053 0.18446602 0.80784315
-0.32655999 -0.57616001 2.184 28.421053 0.1826923 0.81568629
-0.32239997 -0.57616001 2.184 29.268293 0.19617225 0.81960785
-0.31824002 -0.57616001 2.184 29.268293 0.1952381 0.82352942
-0.30159998 -0.57616001 2.184 28.421053 0.17840375 0.83529413
-0.29744002 -0.57616001 2.184 30 0.15525115 0.85882354
-0.29328001 -0.57616001 2.184 30 0.15384616 0.86666667
-0.28911999 -0.57616001 2.184 32.727272 0.1563981 0.82745099
-0.28496 -0.57616001 2.184 32.727272 0.15714286 0.82352942
-0.28079998 -0.57616001 2.184 29.032257 0.14691943 0.82745099
-0.27664 -0.57616001 2.184 29.032257 0.14691943 0.82745099
-0.27248001 -0.57616001 2.184 23.225805 0.14553991 0.83529413
-0.26831999 -0.57616001 2.184 23.225805 0.1402715 0.86666667
-0.26416001 -0.57616001 2.184 28.421053 0.17431192 0.85490197
-0.25999999 -0.57616001 2.184 28.421053 0.17511521 0.8509804
-0.25583997 -0.57616001 2.184 24 0.13953489 0.84313726
-0.25168002 -0.57616001 2.184 24 0.13452914 0.87450981
-0.24752 -0.57616001 2.184 23.47826 0.10648149 0.84705883
-0.24492002 -0.57985342 2.1980002 23.47826 0.10502283 0.85882354
-0.24073336 -0.57985342 2.1980002 32.727272 0.14666666 0.88235295
-0.23654668 -0.57985342 2.1980002 32.727272 0.14224137 0.90980393
-0.23236002 -0.57985342 2.1980002 30 0.14718615 0.90588236
-0.22817335 -0.57985342 2.1980002 30 0.14529915 0.91764706
-0.22398669 -0.57985342 2.1980002 32.727272 0.1392405 0.92941177
-0.21980003 -0.57985342 2.1980002 32.727272 0.13983051 0.9254902
-0.21561335 -0.57985342 2.1980002 28.888889 0.11489362 0.92156863
-0.21142668 -0.57985342 2.1980002 28.888889 0.11157025 0.94901961
-0.20724002 -0.57985342 2.1980002 26.4 0.10330579 0.94901961
-0.20305336 -0.57985342 2.1980002 26.4 0.10121457 0.96862745
-0.19886668 -0.57985342 2.1980002 39.23077 0.10655738 0.95686275
-0.19468002 -0.57985342 2.1980002 39.23077 0.1031746 0.98823529
-0.19049335 -0.57985342 2.1980002 52 0.060483869 0.97254902
-0.18630669 -0.57985342 2.1980002 52 0.059999999 0.98039216
-0.18212001 -0.57985342 2.1980002 64.285713 0.055555556 0.98823529
-0.17793335 -0.57985342 2.1980002 64.285713 0.05511811 0.99607843
-0.17264 -0.57616001 2.184 72 0.019762846 0.99215686
-0.16848001 -0.57616001 2.184 72 0.019607844 1
-0.16431999 -0.57616001 2.184 0 0 0.99607843
-0.16015999 -0.57616001 2.184 0 0 0.99607843
-0.156 -0.57616001 2.184 0 0 0.99607843
-0.15184 -0.57616001 2.184 0 0 0.99607843
-0.14862669 -0.57985342 2.1980002 0 0 0.99607843
-0.14444001 -0.57985342 2.1980002 0 0 0.99607843
-0.14025334 -0.57985342 2.1980002 60 0.0079051387 0.99215686
-0.13606668 -0.57985342 2.1980002 60 0.0078740157 0.99607843
-0.13188002 -0.57985342 2.1980002 0 0 0.99607843
-0.12769336 -0.57985342 2.1980002 0 0 0.99607843
-0.12350667 -0.57985342 2.1980002 0 0 0.99607843
-0.11932001 -0.57985342 2.1980002 0 0 0.99607843
-0.11513334 -0.57985342 2.1980002 0 0 0.99607843
-0.11094668 -0.57985342 2.1980002 0 0 0.99607843
-0.10676 -0.57985342 2.1980002 0 0 0.99607843
-0.10257334 -0.57985342 2.1980002 0 0 0.98039216
-0.098386675 -0.57985342 2.1980002 13.333333 0.038297873 0.92156863
-0.094200008 -0.57985342 2.1980002 13.333333 0.038793102 0.90980393
-0.09001334 -0.57985342 2.1980002 32.307693 0.053941909 0.94509804
-0.08582668 -0.57985342 2.1980002 46.666668 0.035294119 1
-0.081640005 -0.57985342 2.1980002 0 0 0.99607843
-0.077453338 -0.57985342 2.1980002 0 0 0.99607843
-0.07326667 -0.57985342 2.1980002 72 0.019607844 1
-0.069080003 -0.57985342 2.1980002 72 0.02 0.98039216
-0.064893343 -0.57985342 2.1980002 48 0.040160641 0.97647059
-0.060706671 -0.57985342 2.1980002 53.333332 0.035294119 1
-0.056520004 -0.57985342 2.1980002 60 0.028112451 0.97647059
-0.052666668 -0.5835467 2.2120001 60 0.027559055 0.99607843
-0.048453335 -0.5835467 2.2120001 68.571426 0.027667984 0.99215686
-0.044240002 -0.5835467 2.2120001 68.571426 0.027777778 0.98823529
-0.039773338 -0.57985342 2.1980002 72 0.019762846 0.99215686
-0.03558667 -0.57985342 2.1980002 72 0.019685039 0.99607843
-0.031400003 -0.57985342 2.1980002 72 0.019685039 0.99607843
-0.027213337 -0.57985342 2.1980002 72 0.019607844 1
-0.023026668 -0.57985342 2.1980002 0 0 0.99607843
-0.018840002 -0.57985342 2.1980002 0 0 0.99607843
-0.014653334 -0.57985342 2.1980002 72 0.019685039 0.99607843
-0.010466667 -0.57985342 2.1980002 72 0.019685039 0.99607843
-0.0062800008 -0.57985342 2.1980002 68.571426 0.027559055 0.99607843
-0.0020933335 -0.57985342 2.1980002 68.571426 0.027450981 1
0.0021066668 -0.5835467 2.2120001 68.571426 0.027888447 0.98431373
0.0063200006 -0.5835467 2.2120001 68.571426 0.027777778 0.98823529
0.0106 -0.58723998 2.2260001 60 0.035714287 0.98823529
0.01484 -0.58723998 2.2260001 60 0.036144577 0.97647059
0.01908 -0.58723998 2.2260001 60 0.036144577 0.97647059
0.023320001 -0.58723998 2.2260001 60 0.036144577 0.97647059
0.027386669 -0.5835467 2.2120001 48 0.039999999 0.98039216
0.031599998 -0.5835467 2.2120001 48 0.039999999 0.98039216
0.035813335 -0.5835467 2.2120001 55 0.048387095 0.97254902
0.040026668 -0.5835467 2.2120001 55 0.048780486 0.96470588
0.044240002 -0.5835467 2.2120001 48 0.040485829 0.96862745
0.048146669 -0.57985342 2.1980002 48 0.039840639 0.98431373
0.052333336 -0.57985342 2.1980002 60 0.028000001 0.98039216
0.056880001 -0.5835467 2.2120001 60 0.028112451 0.97647059
0.061093334 -0.5835467 2.2120001 60 0.043824703 0.98431373
0.065306671 -0.5835467 2.2120001 60 0.043824703 0.98431373
0.069520004 -0.5835467 2.2120001 63.75 0.064000003 0.98039216
0.073733337 -0.5835467 2.2120001 63.75 0.064257026 0.97647059
0.07794667 -0.5835467 2.2120001 60 0.072289154 0.97647059
0.082160003 -0.5835467 2.2120001 60 0.07171315 0.98431373
0.086373344 -0.5835467 2.2120001 45 0.03305785 0.94901961
0.09058667 -0.5835467 2.2120001 45 0.033755273 0.92941177
0.09480001 -0.5835467 2.2120001 12 0.021551725 0.90980393
0.099013336 -0.5835467 2.2120001 12 0.021645023 0.90588236
0.10257334 -0.57985342 2.1980002 30 0.086956523 0.90196079
0.10676 -0.57985342 2.1980002 30 0.093457945 0.8392157
0.11094668 -0.57985342 2.1980002 26.896551 0.13004485 0.87450981
0.11513334 -0.57985342 2.1980002 26.896551 0.13809524 0.82352942
0.11932001 -0.57985342 2.1980002 38.181816 0.14666666 0.88235295
0.12429334 -0.5835467 2.2120001 46.666668 0.10588235 1
0.12850668 -0.5835467 2.2120001 60 0.035999998 0.98039216
0.13272001 -0.5835467 2.2120001 60 0.035999998 0.98039216
0.13693334 -0.5835467 2.2120001 72 0.019685039 0.99607843
0.14114667 -0.5835467 2.2120001 72 0.019607844 1
0.14536001 -0.5835467 2.2120001 0 0 0.99607843
0.13246572 -0.51680285 1.9590001 0 0 0.99607843
0.13619715 -0.51680285 1.9590001 0 0 0.99607843
0.1407143 -0.51970482 1.9700001 0 0 0.99607843
0.14446668 -0.51970482 1.9700001 0 0 0.99607843
0.14821905 -0.51970482 1.9700001 0 0 0.99607843
0.15197143 -0.51970482 1.9700001 0 0 0.99607843
0.15659334 -0.52260667 1.9810001 0 0 0.99607843
0.16036667 -0.52260667 1.9810001 0 0 0.99607843
0.16414 -0.52260667 1.9810001 0 0 0.99607843
0.16791333 -0.52260667 1.9810001 0 0 0.99607843
0.17168668 -0.52260667 1.9810001 0 0 0.99607843
0.17546 -0.52260667 1.9810001 0 0 0.99607843
0.17923334 -0.52260667 1.9810001 0 0 0.99607843
0.18300667 -0.52260667 1.9810001 72 0.020242915 0.96862745
0.19216858 -0.51680285 1.9590001 48 0.039215688 1
0.19470002 -0.51363719 1.9470001 68.571426 0.027450981 1
0.19840857 -0.51363719 1.9470001 68.571426 0.027450981 1
0.20211716 -0.51363719 1.9470001 0 0 0.99607843
0.20582573 -0.51363719 1.9470001 0 0 0.99607843
0.20835048 -0.51073527 1.9360001 0 0 0.99607843
0.2120381 -0.51073527 1.9360001 0 0 0.99607843
0.21572572 -0.51073527 1.9360001 0 0 0.99607843
0.21941335 -0.51073527 1.9360001 0 0 0.99607843
0.22310096 -0.51073527 1.9360001 0 0 0.99607843
0.22678858 -0.51073527 1.9360001 0 0 0.96470588
0.2304762 -0.51073527 1.9360001 30 0.058577407 0.93725491
0.23416382 -0.51073527 1.9360001 30 0.060606062 0.90588236
0.23785144 -0.51073527 1.9360001 5.4545455 0.046808511 0.92156863
0.24153906 -0.51073527 1.9360001 7.5 0.031372551 1
0.24522667 -0.51073527 1.9360001 40 0.024489796 0.96078432
0.2489143 -0.51073527 1.9360001 40 0.024193548 0.97254902
0.25129718 -0.50809717 1.9260001 60 0.036144577 0.97647059
0.25496572 -0.50809717 1.9260001 60 0.035433073 0.99607843
0.2586343 -0.50809717 1.9260001 0 0 0.99607843
0.26230288 -0.50809717 1.9260001 0 0 0.99607843
0.26597145 -0.50809717 1.9260001 0 0 0.99607843
0.26964 -0.50809717 1.9260001 0 0 0.99607843
0.2733086 -0.50809717 1.9260001 0 0 0.99607843
0.27697715 -0.50809717 1.9260001 0 0 0.99607843
0.28064573 -0.50809717 1.9260001 60 0.0078740157 0.99607843
0.2843143 -0.50809717 1.9260001 60 0.0080000004 0.98039216
0.28947812 -0.51073527 1.9360001 330 0.0080971662 0.96862745
0.29316571 -0.51073527 1.9360001 330 0.0082644625 0.94901961
0.29685333 -0.51073527 1.9360001 0 0.029166667 0.94117647
0.30054098 -0.51073527 1.9360001 0 0.02991453 0.91764706
0.3042286 -0.51073527 1.9360001 32.307693 0.056277055 0.90588236
0.30632573 -0.50809717 1.9260001 32.307693 0.058295965 0.87450981
0.30999431 -0.50809717 1.9260001 0 0.031111112 0.88235295
0.31529146 -0.51073527 1.9360001 0 0.031531531 0.87058824
0.31897905 -0.51073527 1.9360001 27.272728 0.049327355 0.87450981
0.32100001 -0.50809717 1.9260001 27.272728 0.050000001 0.86274511
0.32466859 -0.50809717 1.9260001 30 0.089285716 0.87843138
0.32833716 -0.50809717 1.9260001 30 0.09049774 0.86666667
0.33200574 -0.50809717 1.9260001 22.5 0.071111113 0.88235295
0.33567429 -0.50809717 1.9260001 22.5 0.070484579 0.89019608
0.33934289 -0.50809717 1.9260001 52.5 0.13333334 0.94117647
0.34301144 -0.50809717 1.9260001 52.5 0.13445379 0.93333334
0.34668002 -0.50809717 1.9260001 60 0.045643155 0.94509804
0.35034859 -0.50809717 1.9260001 60 0.043137256 1
0.35585526 -0.51073527 1.9360001 72 0.019607844 1
0.35954288 -0.51073527 1.9360001 72 0.019607844 1
0.3632305 -0.51073527 1.9360001 68.571426 0.027450981 1
0.36691809 -0.51073527 1.9360001 68.571426 0.027450981 1
0.36658573 -0.50519526 1.9150001 0 0 0.99607843
0.37023336 -0.50519526 1.9150001 0 0 0.99607843
0.3760286 -0.50809717 1.9260001 0 0 0.99607843
0.37969717 -0.50809717 1.9260001 0 0 0.99607843
0.3811762 -0.50519526 1.9150001 0 0 0.99607843
0.3848238 -0.50519526 1.9150001 0 0 0.99607843
0.38624001 -0.50229335 1.904 0 0 0.99607843
0.38986668 -0.50229335 1.904 0 0 0.99607843
0.39804003 -0.50809717 1.9260001 0 0 0.99607843
0.4017086 -0.50809717 1.9260001 0 0 0.99607843
0.46852002 -0.58723998 2.2260001 0 0 0.99607843
0.47275999 -0.58723998 2.2260001 0 0 0.99607843
0.47100005 -0.57985342 2.1980002 68.571426 0.027450981 1
0.47518671 -0.57985342 2.1980002 68.571426 0.028571429 0.96078432
0.4824267 -0.5835467 2.2120001 22.105263 0.080508478 0.9254902
0.48664001 -0.5835467 2.2120001 22.105263 0.087557606 0.8509804
0.52542675 -0.57985342 2.1980002 26.666666 0.17475729 0.80784315
0.54141331 -0.5835467 2.2120001 35.121948 0.18636364 0.86274511
0.5456267 -0.5835467 2.2120001 35.121948 0.2 0.80392158
-0.75569344 -0.57566673 2.1980002 17.64706 0.08252427 0.80784315
-0.73007995 -0.57199997 2.184 31.304348 0.10952381 0.82352942
-0.72592002 -0.57199997 2.184 31.304348 0.10132159 0.89019608
-0.72176003 -0.57199997 2.184 22.5 0.071111113 0.88235295
-0.71759999 -0.57199997 2.184 22.5 0.070484579 0.89019608
-0.71801341 -0.57566673 2.1980002 18.461538 0.057522126 0.88627452
-0.71382672 -0.57566673 2.1980002 18.461538 0.05652174 0.90196079
-0.70511997 -0.57199997 2.184 30 0.06167401 0.89019608
-0.70095998 -0.57199997 2.184 30 0.061403509 0.89411765
-0.69679999 -0.57199997 2.184 34.736843 0.084070794 0.88627452
-0.69264001 -0.57199997 2.184 34.736843 0.083700441 0.89019608
-0.69289339 -0.57566673 2.1980002 18.461538 0.057017542 0.89411765
-0.68870676 -0.57566673 2.1980002 18.461538 0.057268724 0.89019608
-0.68452001 -0.57566673 2.1980002 24.545454 0.096916303 0.89019608
-0.68033338 -0.57566673 2.1980002 24.545454 0.09565217 0.90196079
-0.67614669 -0.57566673 2.1980002 30 0.10619469 0.88627452
-0.67196006 -0.57566673 2.1980002 30 0.10212766 0.92156863
-0.66777337 -0.57566673 2.1980002 34.736843 0.082608692 0.90196079
-0.66358674 -0.57566673 2.1980002 34.736843 0.082608692 0.90196079
-0.6552 -0.57199997 2.184 20 0.052631579 0.89411765
-0.64686668 -0.56833333 2.1700001 20 0.052631579 0.89411765
-0.6385867 -0.56466669 2.1560001 21 0.08583691 0.9137255
-0.61888289 -0.55078578 2.1030002 21 0.083333336 0.94117647
-0.42283332 -0.54083335 2.0650001 340 0.053333335 0.88235295
-0.41889998 -0.54083335 2.0650001 340 0.052401748 0.89803922
-0.4149667 -0.54083335 2.0650001 12 0.065502182 0.89803922
-0.41103336 -0.54083335 2.0650001 12 0.06666667 0.88235295
-0.40710002 -0.54083335 2.0650001 31.304348 0.10952381 0.82352942
-0.40316668 -0.54083335 2.0650001 31.304348 0.10952381 0.82352942
-0.39691335 -0.53769052 2.0530002 26.666666 0.088235296 0.80000001
-0.3930029 -0.53769052 2.0530002 26.666666 0.087804876 0.80392158
-0.33072001 -0.57199997 2.184 26.666666 0.17560975 0.80392158
-0.32655999 -0.57199997 2.184 26.666666 0.17475729 0.80784315
-0.31824002 -0.57199997 2.184 29.268293 0.19902913 0.80784315
-0.29744002 -0.57199997 2.184 21.428572 0.12903225 0.8509804
-0.29328001 -0.57199997 2.184 21.428572 0.12669684 0.86666667
-0.28911999 -0.57199997 2.184 26.666666 0.16666667 0.84705883
-0.28496 -0.57199997 2.184 26.666666 0.16744186 0.84313726
-0.28079998 -0.57199997 2.184 28.421053 0.17924528 0.83137256
-0.27664 -0.57199997 2.184 28.421053 0.17840375 0.83529413
-0.27248001 -0.57199997 2.184 26.666666 0.16981132 0.83137256
-0.26831999 -0.57199997 2.184 26.666666 0.16589862 0.8509804
-0.26416001 -0.57199997 2.184 30.81081 0.1712963 0.84705883
-0.25999999 -0.57199997 2.184 30.81081 0.17209302 0.84313726
-0.25583997 -0.57199997 2.184 21.428572 0.13207547 0.83137256
-0.25168002 -0.57199997 2.184 21.428572 0.12903225 0.8509804
-0.24910668 -0.57566673 2.1980002 21.428572 0.12844037 0.85490197
-0.24492002 -0.57566673 2.1980002 21.428572 0.1238938 0.88627452
-0.24226668 -0.57933336 2.2120001 32.727272 0.14473684 0.89411765
-0.23805334 -0.57933336 2.2120001 32.727272 0.1460177 0.88627452
-0.23384 -0.57933336 2.2120001 32.857143 0.1891892 0.87058824
-0.22962669 -0.57933336 2.2120001 32.857143 0.17721519 0.92941177
-0.22398669 -0.57566673 2.1980002 28.888889 0.11440678 0.9254902
-0.21980003 -0.57566673 2.1980002 28.888889 0.11489362 0.92156863
-0.21561335 -0.57566673 2.1980002 26.4 0.10638298 0.92156863
-0.21142668 -0.57566673 2.1980002 26.4 0.10460251 0.93725491
-0.20724002 -0.57566673 2.1980002 23.47826 0.096638657 0.93333334
-0.20305336 -0.57566673 2.1980002 23.47826 0.093117408 0.96862745
-0.19886668 -0.57566673 2.1980002 39.23077 0.10612245 0.96078432
-0.19468002 -0.57566673 2.1980002 39.23077 0.10236221 0.99607843
-0.19049335 -0.57566673 2.1980002 48 0.040160641 0.97647059
-0.18630669 -0.57566673 2.1980002 48 0.040160641 0.97647059
-0.18212001 -0.57566673 2.1980002 60 0.043650795 0.98823529
-0.17793335 -0.57566673 2.1980002 60 0.043650795 0.98823529
-0.17374669 -0.57566673 2.1980002 68.571426 0.027777778 0.98823529
-0.16956 -0.57566673 2.1980002 68.571426 0.027450981 1
-0.16537334 -0.57566673 2.1980002 0 0 0.99607843
-0.16015999 -0.57199997 2.184 0 0 0.99607843
-0.156 -0.57199997 2.184 0 0 0.99607843
-0.15281335 -0.57566673 2.1980002 0 0 0.99607843
-0.14862669 -0.57566673 2.1980002 60 0.0078740157 0.99607843
-0.14444001 -0.57566673 2.1980002 60 0.0078740157 0.99607843
-0.14025334 -0.57566673 2.1980002 68.571426 0.027559055 0.99607843
-0.13606668 -0.57566673 2.1980002 68.571426 0.027450981 1
-0.13188002 -0.57566673 2.1980002 60 0.0078740157 0.99607843
-0.12769336 -0.57566673 2.1980002 60 0.0078740157 0.99607843
-0.12350667 -0.57566673 2.1980002 60 0.0078740157 0.99607843
-0.11932001 -0.57566673 2.1980002 60 0.0078740157 0.99607843
-0.11513334 -0.57566673 2.1980002 60 0.0078740157 0.99607843
-0.11094668 -0.57566673 2.1980002 60 0.0078740157 0.99607843
-0.10676 -0.57566673 2.1980002 60 0.0078740157 0.99607843
-0.10257334 -0.57566673 2.1980002 60 0.0080000004 0.98039216
-0.099013336 -0.57933336 2.2120001 34.736843 0.080508478 0.9254902
-0.09480001 -0.57933336 2.2120001 34.736843 0.081196584 0.91764706
-0.09001334 -0.57566673 2.1980002 37.14286 0.08677686 0.94901961
-0.08582668 -0.57566673 2.1980002 52 0.05882353 1
-0.081640005 -0.57566673 2.1980002 0 0 0.99607843
-0.077453338 -0.57566673 2.1980002 0 0 0.99607843
-0.07326667 -0.57566673 2.1980002 68.571426 0.027777778 0.98823529
-0.069080003 -0.57566673 2.1980002 68.571426 0.028112451 0.97647059
-0.064893343 -0.57566673 2.1980002 52 0.060728744 0.96862745
-0.060706671 -0.57566673 2.1980002 52 0.05952381 0.98823529
-0.056520004 -0.57566673 2.1980002 60 0.036290321 0.97254902
-0.052666668 -0.57933336 2.2120001 60 0.035433073 0.99607843
-0.048453335 -0.57933336 2.2120001 72 0.019762846 0.99215686
-0.044240002 -0.57933336 2.2120001 72 0.019762846 0.99215686
-0.040026668 -0.57933336 2.2120001 72 0.019762846 0.99215686
-0.035813335 -0.57933336 2.2120001 72 0.019685039 0.99607843
-0.031599998 -0.57933336 2.2120001 72 0.019685039 0.99607843
-0.027386669 -0.57933336 2.2120001 72 0.019685039 0.99607843
-0.023026668 -0.57566673 2.1980002 60 0.0078740157 0.99607843
-0.018840002 -0.57566673 2.1980002 60 0.0078740157 0.99607843
-0.014653334 -0.57566673 2.1980002 72 0.019685039 0.99607843
-0.010466667 -0.57566673 2.1980002 72 0.019841271 0.98823529
-0.0062800008 -0.57566673 2.1980002 60 0.035856575 0.98431373
-0.0021066668 -0.57933336 2.2120001 60 0.036585364 0.96470588
0.0021066668 -0.57933336 2.2120001 52 0.060483869 0.97254902
0.0063600005 -0.583 2.2260001 52 0.05952381 0.98823529
0.0106 -0.583 2.2260001 60 0.063745022 0.98431373
0.01484 -0.583 2.2260001 60 0.06530612 0.96078432
0.01908 -0.583 2.2260001 42.352943 0.069105692 0.96470588
0.023320001 -0.583 2.2260001 42.352943 0.06967213 0.95686275
0.027560001 -0.583 2.2260001 42 0.081632651 0.96078432
0.031599998 -0.57933336 2.2120001 42 0.081632651 0.96078432
0.035813335 -0.57933336 2.2120001 47.5 0.097959183 0.96078432
0.040026668 -0.57933336 2.2120001 47.5 0.096000001 0.98039216
0.044240002 -0.57933336 2.2120001 55 0.048582997 0.96862745
0.048453335 -0.57933336 2.2120001 55 0.048582997 0.96862745
0.052666668 -0.57933336 2.2120001 46.153847 0.05284553 0.96470588
0.056880001 -0.57933336 2.2120001 46.153847 0.052631579 0.96862745
0.061093334 -0.57933336 2.2120001 46.153847 0.05284553 0.96470588
0.065306671 -0.57933336 2.2120001 46.153847 0.053278688 0.95686275
0.069520004 -0.57933336 2.2120001 41.739132 0.093877554 0.96078432
0.073733337 -0.57933336 2.2120001 41.739132 0.093877554 0.96078432
0.07794667 -0.57933336 2.2120001 44.57143 0.14957266 0.91764706
0.082160003 -0.57933336 2.2120001 44.57143 0.14957266 0.91764706
0.086373344 -0.57933336 2.2120001 38.571426 0.18421052 0.89411765
0.09058667 -0.57933336 2.2120001 38.571426 0.18103448 0.90980393
0.09480001 -0.57933336 2.2120001 16.153847 0.11158799 0.9137255
0.099013336 -0.57933336 2.2120001 16.153847 0.10833333 0.94117647
0.10322668 -0.57933336 2.2120001 21.428572 0.11864407 0.9254902
0.10676 -0.57566673 2.1980002 21.428572 0.11914894 0.92156863
0.11094668 -0.57566673 2.1980002 8.181818 0.094017096 0.91764706
0.11513334 -0.57566673 2.1980002 8.181818 0.094017096 0.91764706
0.11932001 -0.57566673 2.1980002 24.545454 0.09565217 0.90196079
0.12429334 -0.57933336 2.2120001 24.545454 0.087649405 0.98431373
0.12850668 -0.57933336 2.2120001 40 0.024793388 0.94901961
0.1182 -0.51595241 1.9700001 40 0.023529412 1
0.12195238 -0.51595241 1.9700001 0 0 0.99607843
0.12570477 -0.51595241 1.9700001 0 0 0.99607843
0.12945715 -0.51595241 1.9700001 0 0 0.99607843
0.13246572 -0.51307148 1.9590001 0 0 0.99607843
0.13619715 -0.51307148 1.9590001 0 0 0.99607843
0.1407143 -0.51595241 1.9700001 0 0 0.99607843
0.14446668 -0.51595241 1.9700001 0 0 0.99607843
0.14821905 -0.51595241 1.9700001 0 0 0.99607843
0.15197143 -0.51595241 1.9700001 0 0 0.99607843
0.15659334 -0.51883334 1.9810001 0 0 0.99607843
0.16036667 -0.51883334 1.9810001 0 0 0.99607843
0.16414 -0.51883334 1.9810001 0 0 0.99607843
0.16791333 -0.51883334 1.9810001 0 0 0.99607843
0.17168668 -0.51883334 1.9810001 0 0 0.99607843
0.17546 -0.51883334 1.9810001 0 0 0.99607843
0.17923334 -0.51883334 1.9810001 0 0 0.99607843
0.18300667 -0.51883334 1.9810001 60 0.0079365084 0.98823529
0.19470002 -0.50992858 1.9470001 0 0 0.99607843
0.19840857 -0.50992858 1.9470001 0 0 0.99607843
0.20211716 -0.50992858 1.9470001 0 0 0.99607843
0.20582573 -0.50992858 1.9470001 0 0 0.99607843
0.20835048 -0.50704765 1.9360001 0 0 0.99607843
0.2120381 -0.50704765 1.9360001 0 0 0.99607843
0.21572572 -0.50704765 1.9360001 0 0 0.99607843
0.21941335 -0.50704765 1.9360001 0 0 0.99607843
0.22310096 -0.50704765 1.9360001 0 0 0.99607843
0.22678858 -0.50704765 1.9360001 0 0 0.99607843
0.2304762 -0.50704765 1.9360001 0 0 0.99607843
